252.38 252.4 252.62 252.9 253.04 253.11 253.18 253.36 253.7 253.93 253.8 253.95 253.81 253.56 253.77 254.06 254.49 254.78 255.04 255.28 255.59 255.74 255.74 255.93 255.82 255.62 255.66 255.23 255.23 255.82 256.6 257.31 257.99 258.67 259.31 259.73 259.88 259.7 259.6 259.78 259.93 259.82 260.24 260.97 261.59 262.3 262.89 263.42 263.65 263.54 263.68 264.18 264.45 264.88 265.55 265.83 266.31 266.61 266.8 267.27 267.82 267.8 268.13 268.26 267.92 268.28 268.79 269.31 269.55 270.14 270.98 271.65 271.99 272.33
253.21 252.83 253.17 253.67 253.93 253.91 253.89 253.98 254.09 254.33 254.28 254.16 254.13 253.86 253.87 254.14 254.46 254.8 255.12 255.36 255.62 255.94 256.17 256.21 256.4 256.3 256.41 255.95 255.29 255.59 256.49 257.24 257.87 258.47 258.91 259.17 259.27 259.21 259.06 259.24 259.4 259.5 260.1 260.72 261.25 261.8 262.41 262.93 263.1 262.98 263.27 263.76 263.86 264.34 264.93 265.15 265.64 265.78 265.99 266.54 266.96 266.98 267.37 267.57 267.37 267.66 268.12 268.56 268.91 269.52 270.18 270.76 271.08 271.57
253.93 253.49 253.94 254.28 254.5 254.6 254.57 254.58 254.53 254.75 254.84 254.59 254.34 254.23 254.07 254.28 254.56 254.89 255.17 255.29 255.43 255.65 256.26 256.28 256.38 256.58 256.7 256.51 255.78 255.45 255.96 256.86 257.6 258.16 258.5 258.68 258.64 258.76 258.77 258.95 259.2 259.5 259.91 260.42 260.92 261.26 261.85 262.45 262.54 262.69 262.92 263.19 263.56 263.95 264.39 264.55 264.95 265.1 265.42 265.89 266.16 266.38 266.84 266.89 266.83 267.17 267.61 267.9 268.21 268.76 269.41 269.91 270.26 270.92
254.16 253.96 254.44 254.8 254.61 254.67 254.76 254.8 254.79 254.83 254.89 254.7 254.53 254.34 254.26 254.32 254.6 254.86 254.99 255.15 255.4 255.6 256.25 256.58 256.49 256.68 256.86 256.86 256.24 255.49 255.51 256.35 257.12 257.58 258.01 258.16 257.98 258.26 258.52 258.86 259.06 258.93 259.22 259.84 260.4 260.78 261.04 261.25 261.19 261.32 261.63 262.17 262.92 263.43 263.83 264.14 264.47 264.71 265.07 265.37 265.53 265.94 266.33 266.27 266.26 266.6 266.91 267.5 268.07 268.83 269.43 269.99 270.48 270.8
254.35 254.49 254.56 254.7 254.63 254.7 254.79 254.85 254.9 254.99 255 254.85 254.68 254.44 254.38 254.43 254.5 254.53 254.78 255.13 255.5 255.86 256.28 256.6 256.67 256.74 256.96 257.08 256.7 255.76 255.43 255.72 256.08 256.24 256.48 256.55 256.83 257.54 257.78 257.96 258.19 258 258.29 258.98 259.13 259.1 258.96 258.93 259.21 259.42 260.05 260.9 261.95 262.45 262.48 262.74 263.69 264.42 264.89 265.03 265.15 265.47 265.55 265.61 265.82 266.32 266.83 267.45 268.42 269.21 269.79 270.14 270.63 271.21
254.48 254.57 254.65 254.7 254.77 254.8 254.88 254.97 255.18 255.31 255.21 255.18 255.16 254.87 254.59 254.58 254.53 254.68 254.94 255.22 255.64 255.96 256.38 256.77 256.99 256.88 256.96 257.2 257.02 256.52 256.05 255.74 255.35 255.17 255.36 255.66 256.11 256.53 256.63 256.85 257.06 257.18 257.67 258.12 257.82 257.73 257.86 258.2 258.92 259.14 259.68 260.39 261.11 261.55 261.33 261.54 262.68 263.77 264.3 263.96 264.14 264.69 264.89 265.37 265.99 266.61 267.23 267.98 268.52 269.21 269.79 270.13 270.58 271.15
254.76 254.77 254.88 254.88 254.92 255.06 255.01 255.14 255.5 255.46 255.32 255.34 255.46 255.17 254.87 254.86 254.89 255.12 255.34 255.53 255.82 256.22 256.6 256.9 256.98 257.09 257.11 257.23 257.21 257.19 256.9 256.58 256.11 255.95 255.48 255.4 255.49 255.67 256.01 256.27 256.33 256.65 257.05 257.3 257.06 257.26 257.75 258.2 259.06 259.25 259.67 260.01 260.51 260.74 260.78 261.01 261.55 262.3 262.77 262.88 263.54 264.46 264.98 265.72 266.17 266.81 267.43 268.14 268.62 268.84 269.13 269.71 270.33 271.03
254.82 254.81 254.9 254.95 255 255.13 255.31 255.49 255.62 255.65 255.64 255.65 255.62 255.68 255.37 255.17 255.46 255.69 255.84 255.99 256.14 256.45 256.72 256.97 257.01 257.21 257.31 257.27 257.33 257.38 257.46 257.4 257.19 257.08 256.54 255.81 255.7 255.55 255.54 256.01 255.93 256.04 256.28 256.29 256.83 257.75 258.44 259.04 259.6 259.54 259.56 259.92 260.18 260.4 260.72 261.05 261.34 261.55 262 262.89 263.75 264.61 265.31 265.81 266.36 266.94 267.43 267.92 268.21 268.64 269.25 269.83 270.53 271.06
254.87 254.9 254.95 255.1 255.28 255.51 255.7 255.89 256.11 256.12 255.99 256.11 256.02 255.94 255.96 255.6 255.62 256.21 256.39 256.43 256.58 256.79 256.96 257.08 257.15 257.29 257.4 257.43 257.46 257.53 257.66 257.57 257.56 257.52 257.47 257 256.93 256.86 256.4 256.32 256.06 255.87 255.81 256.37 257.24 258.11 258.9 259.68 260.16 260.22 260.04 260.21 260.38 260.45 260.71 261.15 261.72 262.07 262.48 263.04 264.02 264.85 265.33 265.85 266.17 266.47 266.88 267.33 268.06 268.89 269.5 270.04 270.45 270.92
254.95 254.99 255.24 255.66 255.55 255.76 256 256.38 256.42 256.36 256.3 256.35 256.38 256.34 256.31 256.09 255.99 256.41 256.56 256.61 256.74 256.91 257.02 257.16 257.31 257.51 257.5 257.59 257.6 257.73 257.66 257.65 257.66 257.69 257.84 257.9 257.77 257.73 257.24 256.61 256.33 256.36 256.02 256.41 257.44 258.53 259.31 259.98 260.79 260.81 260.94 261.26 261.24 261.2 261.37 261.76 261.8 262.04 262.89 263.59 264.35 264.75 265.06 265.38 265.74 266.17 266.74 267.4 268.08 268.87 269.51 269.89 270.27 270.63
255.24 255.27 255.56 255.88 255.89 256.07 256.26 256.49 256.4 256.49 256.52 256.65 256.76 256.74 256.7 256.52 256.53 256.55 256.61 256.72 256.72 257.05 257.22 257.39 257.44 257.63 257.75 257.78 257.82 257.89 257.83 257.92 257.9 257.83 257.79 257.84 257.97 257.92 257.8 257.47 257.02 256.58 256.13 256.22 257.36 258.67 259.84 260.56 261.04 261.36 261.54 261.75 261.8 262.03 262.32 262.31 262.03 262.25 263.15 263.89 264.25 264.58 264.89 265.18 265.6 266.24 266.87 267.49 268.25 268.78 269.28 269.61 270.02 270.5
255.6 255.74 255.93 255.98 256.29 256.57 256.43 256.65 256.73 256.77 256.75 256.83 257 257.06 257.01 256.88 256.8 256.59 256.59 256.73 256.93 257.25 257.5 257.69 257.75 257.78 257.89 258.02 258 258.08 258.06 258.39 258.44 258.1 257.86 257.89 258.14 258.07 258.05 257.96 257.72 257.05 256.16 256.07 257.19 258.58 259.81 260.65 261.27 261.64 261.89 262.06 262.4 262.52 262.67 262.97 262.74 262.84 263.66 263.82 263.98 264.47 264.92 265.45 265.91 266.46 266.96 267.55 268.08 268.7 269.03 269.23 269.88 270.49
255.83 256.17 256.39 256.52 256.58 256.65 256.62 256.72 256.84 256.97 256.98 257.09 257.26 257.36 257.34 257.31 257.19 257.07 256.9 256.85 257.07 257.42 257.64 257.77 257.97 258.07 258.03 258.17 258.24 258.25 258.23 258.46 258.68 258.55 258.31 258.18 258.21 258.18 258.11 258.12 257.94 257.15 256.23 256.08 257.19 258.48 259.42 260.45 261.09 261.4 262.01 262.37 262.58 262.75 262.99 263.23 263.49 263.58 263.73 263.79 264.02 264.57 265.06 265.48 265.98 266.54 267.11 267.62 268.09 268.36 268.53 269.3 269.77 270.18
255.83 256.33 256.6 256.78 256.83 256.85 256.92 256.99 257 257.1 257.21 257.39 257.52 257.61 257.59 257.42 257.44 257.52 257.32 257.1 257.12 257.38 257.62 257.77 257.98 258.14 258.27 258.4 258.46 258.48 258.43 258.42 258.47 258.52 258.42 258.36 258.22 258.26 258.28 258.16 258.02 257.33 256.38 256.26 257.05 258.17 259.16 260.26 260.87 261.17 261.91 262.57 262.86 263.07 263.36 263.49 263.79 263.96 264.06 264.18 264.52 264.81 265.04 265.25 265.67 266.02 266.69 267.3 267.4 267.78 268.42 269.09 269.67 270.18
255.82 256.27 256.7 257.02 257.06 257.08 257.12 257.12 257.15 257.26 257.41 257.5 257.68 257.78 257.83 257.73 257.63 257.6 257.74 257.49 257.24 257.54 257.79 257.96 258.1 258.35 258.54 258.57 258.63 258.73 258.66 258.69 258.71 258.74 258.67 258.7 258.37 258.32 258.45 258.4 258.01 257.46 257.02 256.76 256.97 257.92 259.05 260.21 260.86 261.29 261.85 262.65 263.05 263.43 263.86 263.92 264.05 264.19 264.36 264.64 264.88 264.85 265.11 265.48 265.64 265.95 266.19 266.51 267.25 267.81 268.48 269.05 269.56 270.17
255.93 256.32 256.83 257.09 257.23 257.35 257.43 257.4 257.37 257.43 257.57 257.67 257.87 257.79 257.86 257.95 257.99 257.78 257.85 257.86 257.73 257.76 258.03 258.23 258.42 258.61 258.96 258.94 258.89 258.96 258.92 258.91 258.86 258.75 258.64 258.68 258.63 258.58 258.54 258.51 258.51 258.17 257.64 257.05 256.99 257.18 258.6 260.01 260.62 261.13 261.71 262.29 262.7 263.08 263.62 264.14 264.57 264.57 264.72 264.95 265.01 265.12 265.44 265.66 265.87 266.06 266.33 266.85 267.42 268 268.54 269.02 269.61 270.05
256.26 256.63 257.05 257.11 257.24 257.42 257.67 257.55 257.51 257.58 257.63 257.69 257.82 257.83 257.98 258 258.09 258.17 258.18 258.18 258.21 258.11 258.3 258.61 258.77 258.88 259.03 259.19 259.18 259.14 259.15 259.08 259.02 258.93 258.94 258.89 258.79 258.6 258.62 258.6 258.48 258.31 257.87 257.38 257.17 256.94 258.53 259.49 260.12 260.7 261.27 261.7 262.33 263.08 263.66 264.31 265.05 265.15 265.14 265.21 265.44 265.6 265.78 265.97 266.12 266.26 266.56 267.06 267.53 267.93 268.44 268.78 269.25 269.79
256.6 256.87 257.17 257.3 257.39 257.46 257.62 257.62 257.63 257.71 257.75 257.81 257.91 257.98 258.13 258.15 258.31 258.43 258.46 258.6 258.76 258.93 259.01 259.25 259.42 259.42 259.47 259.57 259.57 259.4 259.4 259.31 259.22 259.18 259.05 258.97 258.94 258.74 258.67 258.63 258.61 258.46 258.07 257.69 257.52 257.11 257.85 258.8 259.57 260.42 261.17 261.77 262.46 263.22 264.01 264.58 265.08 265.48 265.63 265.7 265.67 265.76 265.91 266.1 266.35 266.64 266.85 267.31 267.71 267.9 268.28 268.7 269.2 269.7
256.8 256.9 257.21 257.48 257.78 257.93 258.01 258.13 258.03 257.99 257.97 257.99 258.18 258.23 258.27 258.34 258.56 258.73 258.7 258.79 259.03 259.43 259.74 259.97 260.15 260.04 259.87 259.87 259.83 259.61 259.62 259.53 259.42 259.53 259.46 259.12 259.11 258.93 258.79 258.73 258.84 258.58 258.41 258.13 257.52 257.12 257.56 258.81 259.95 260.68 261.39 262.3 263.03 263.73 264.41 265.14 265.53 265.85 266.04 266.16 265.99 266.04 266.18 266.37 266.74 267.06 267.13 267.39 267.71 268.02 268.42 268.82 269.3 269.9
257.16 257.3 257.62 257.93 258.17 258.46 258.74 258.75 258.6 258.59 258.66 258.59 258.64 258.71 258.73 258.73 258.81 258.98 258.95 258.97 259.16 259.57 260.08 260.5 260.69 260.54 260.14 260.06 260.07 259.92 259.88 259.8 259.64 259.52 259.59 259.62 259.47 259.28 259.12 258.82 258.81 258.75 258.6 258.38 257.54 257.01 257.74 258.91 259.91 260.68 261.5 262.24 263.12 264.11 265.01 265.76 266.15 266.2 266.36 266.39 266.38 266.42 266.43 266.63 266.96 267.19 267.36 267.59 267.8 268.2 268.53 268.93 269.37 269.81
257.53 257.82 258.14 258.45 258.74 258.96 259.11 259.18 259.19 259.23 259.37 259.47 259.45 259.41 259.44 259.45 259.45 259.41 259.47 259.54 259.57 259.86 260.44 260.81 260.94 260.82 260.48 260.3 260.24 260.29 260.15 260.05 259.96 259.67 259.51 259.74 259.63 259.4 259.19 259.09 259.01 258.91 258.84 258.83 258.08 257.28 257.8 258.98 259.92 260.67 261.42 262.34 263.22 264.13 265.15 266.19 266.67 266.7 266.7 266.69 266.65 266.64 266.68 266.86 267.08 267.33 267.59 267.71 267.93 268.22 268.61 269.01 269.4 269.89
257.9 258.2 258.54 258.84 259.14 259.42 259.65 259.95 260.01 259.98 260.04 260.12 260.17 260.18 260.13 260.15 260.12 260.04 260.07 260.18 260.25 260.33 260.72 261.06 261.11 261.05 260.86 260.7 260.51 260.55 260.37 260.23 260.1 259.88 259.73 259.85 259.75 259.48 259.27 259.23 259.11 259.07 259.07 258.85 258.43 257.57 257.74 258.7 259.72 260.37 261.06 261.95 263.12 264.09 265.19 266.26 266.91 267.16 267.02 266.99 266.93 266.91 266.92 267.06 267.26 267.48 267.75 267.87 268.05 268.34 268.69 268.99 269.4 269.83
258.44 258.77 259.1 259.33 259.62 259.86 260.11 260.32 260.46 260.66 260.81 260.92 260.93 260.93 260.97 260.83 260.87 260.85 260.85 260.91 261.08 261.23 261.33 261.55 261.42 261.23 261.13 260.97 260.8 260.78 260.58 260.42 260.25 260.06 259.87 260.04 260.11 259.82 259.39 259.26 259.19 259.14 259.38 259.1 258.6 257.57 257.46 258.41 259.4 260.27 261.21 262.22 263.26 264.13 265.06 266.1 266.87 267.31 267.15 267.02 267.05 267.08 267.2 267.19 267.37 267.67 267.8 267.98 268.23 268.47 268.79 268.95 269.17 269.5
259.1 259.44 259.84 260.08 260.2 260.49 260.63 260.85 261.08 261.3 261.52 261.65 261.73 261.69 261.65 261.59 261.59 261.65 261.68 261.68 261.81 261.99 261.97 261.92 261.68 261.39 261.28 261.15 261.02 260.87 260.69 260.6 260.42 260.2 259.99 260.08 260.14 259.94 259.65 259.56 259.33 259.19 259.26 259.22 258.78 258.07 257.49 258.15 259.45 260.16 260.98 262.05 262.95 263.8 264.54 265.52 266.27 266.91 266.84 266.48 266.63 267.02 267.36 267.42 267.54 267.78 267.99 268.09 268.36 268.61 268.86 269.18 269.48 269.76
259.87 260.16 260.4 260.65 260.83 261.17 261.39 261.65 261.89 262.13 262.31 262.43 262.48 262.49 262.38 262.38 262.41 262.42 262.45 262.47 262.51 262.53 262.44 262.2 261.92 261.62 261.46 261.37 261.22 261.05 260.86 260.73 260.56 260.29 260.07 259.95 260.03 259.86 259.9 259.68 259.54 259.34 259.29 259.28 259.15 258.85 257.76 257.8 258.98 259.96 260.75 261.64 262.42 263.09 263.82 264.74 265.6 266.36 266.33 265.98 265.98 266.27 266.69 267.04 267.28 267.4 267.83 268.26 268.46 268.7 268.98 269.28 269.57 269.9
260.52 260.7 260.95 261.23 261.49 261.75 262.08 262.4 262.63 262.82 263.04 263.26 263.32 263.23 263.19 263.04 262.97 263.14 263.13 263.12 263.18 263.13 262.78 262.31 262.02 261.8 261.62 261.45 261.32 261.15 261.04 260.9 260.67 260.37 260.32 260.14 260.21 259.94 259.92 259.65 259.67 259.59 259.56 259.41 259.43 259.39 258.4 257.8 258.31 259.61 260.45 261.03 261.62 262.43 263.24 264.23 265.3 265.8 265.7 265.37 265.49 265.74 265.98 266.31 266.53 266.73 267.39 268.17 268.47 268.72 268.98 269.36 269.74 269.97
261.11 261.36 261.55 261.82 262.07 262.44 262.73 263.01 263.31 263.53 263.77 264 264.07 264.1 264.01 263.77 263.54 263.71 263.79 263.69 263.58 263.36 262.82 262.36 262.09 261.95 261.78 261.62 261.46 261.36 261.19 260.95 260.69 260.39 260.42 260.29 260.17 260.18 260.05 259.8 259.67 259.62 259.62 259.51 259.48 259.52 259.07 258.14 258.05 258.96 259.9 260.55 261.26 262.11 263.1 263.95 264.84 265.15 264.95 264.73 264.94 265.07 265.3 265.42 265.77 266.53 267.49 268.35 268.45 268.75 268.98 269.25 269.66 270
261.7 261.95 262.13 262.43 262.74 263 263.3 263.66 263.94 264.2 264.36 264.54 264.68 264.73 264.7 264.42 264.19 264.22 264.22 264.12 263.92 263.62 263.04 262.52 262.2 262.03 261.88 261.74 261.53 261.44 261.3 261.08 260.92 260.6 260.46 260.37 260.23 260.24 260.19 260.18 259.87 259.7 259.67 259.61 259.56 259.56 259.49 258.67 258.38 259 259.82 260.46 261.03 261.8 262.68 263.7 264.41 264.49 264.14 263.96 264.35 264.54 264.68 264.96 265.78 266.86 267.71 268.58 268.74 268.86 268.97 269.19 269.55 269.77
262.39 262.52 262.64 262.87 263.23 263.58 263.88 264.19 264.56 264.86 265.07 265.19 265.24 265.14 265.06 264.96 264.73 264.68 264.59 264.39 264.15 263.81 263.32 262.71 262.37 262.16 262 261.88 261.68 261.57 261.41 261.25 261.07 260.83 260.57 260.36 260.3 260.27 260.15 260.15 260.02 259.85 259.82 259.75 259.7 259.7 259.65 259.18 258.67 258.87 259.52 260.09 260.79 261.64 262.44 263.31 263.78 263.61 263.41 263.52 263.89 264.05 264.6 265.19 266.11 267.14 268 268.74 268.96 269.05 269.14 269.29 269.46 269.55
263.16 263.27 263.44 263.61 263.8 264.04 264.4 264.75 265.1 265.44 265.71 265.88 265.93 265.7 265.33 265.3 265.15 265.01 264.83 264.6 264.4 264.01 263.47 262.9 262.48 262.29 262.11 261.96 261.77 261.65 261.47 261.31 261.11 260.91 260.8 260.74 260.59 260.56 260.33 260.22 260.1 259.97 259.97 259.91 259.8 259.77 259.73 259.41 258.95 258.61 259.02 260.07 260.62 261.39 262.22 262.83 263.11 262.81 262.88 263.12 263.43 264.1 264.81 265.45 266.25 267.21 268.27 269.07 269.17 269.26 269.38 269.44 269.59 269.75
263.53 263.65 263.78 263.96 264.17 264.39 264.7 265.04 265.34 265.75 266.1 266.3 266.4 266.3 265.89 265.61 265.57 265.3 265.06 264.85 264.53 264.17 263.51 262.91 262.55 262.38 262.21 262.12 261.98 261.74 261.51 261.36 261.31 261.18 260.97 260.84 260.6 260.55 260.37 260.3 260.23 260.14 260.05 259.99 259.92 259.88 260.02 259.64 259.01 258.82 258.77 259.64 260.49 261.03 261.78 262.31 262.38 262.07 262.28 262.73 263.3 263.92 264.67 265.27 266.1 267.2 268.2 269.06 269.37 269.44 269.54 269.65 269.78 269.96
263.58 263.44 263.34 263.31 263.49 263.65 263.8 264.3 265.01 265.67 266.28 266.66 266.68 266.57 266.36 265.92 265.79 265.46 265.22 264.98 264.65 264.26 263.61 263 262.62 262.49 262.33 262.2 262.03 261.82 261.61 261.5 261.56 261.43 261.14 260.99 260.75 260.59 260.52 260.54 260.38 260.29 260.2 260.14 260.05 259.97 259.99 259.77 259.24 259.08 258.8 259.09 260.14 260.81 261.34 261.72 261.56 261.3 261.69 262.42 263.41 264.02 264.84 265.77 266.61 267.49 268.15 268.75 269.29 269.6 269.67 269.77 269.96 270.12
262.99 262.5 262.05 262.03 262.3 262.62 263.24 264.14 264.96 265.66 266.17 266.72 266.97 266.87 266.68 266.29 265.97 265.59 265.3 264.95 264.6 264.23 263.69 263.13 262.72 262.57 262.51 262.3 262.07 261.94 261.78 261.61 261.52 261.43 261.33 261.24 261.05 260.73 260.68 260.82 260.57 260.43 260.38 260.25 260.17 260.06 260 259.88 259.44 259.28 259.2 258.98 259.7 260.47 260.92 261.06 260.98 261.22 261.91 262.69 263.52 264.33 265.07 265.98 266.73 267.15 267.34 267.91 268.57 268.8 268.85 269.04 269.45 269.9
261.83 261.27 260.82 261.18 261.94 262.84 263.83 264.82 265.65 266.51 266.92 267.2 267.24 267.13 266.83 266.51 266.13 265.77 265.37 264.91 264.52 264.17 263.73 263.2 262.89 262.69 262.69 262.44 262.17 262.13 261.96 261.8 261.67 261.49 261.35 261.21 261.12 260.95 260.83 260.9 260.75 260.61 260.55 260.36 260.25 260.17 260.11 260.12 259.88 259.58 259.46 259.12 259.1 259.7 260.17 260.2 260.61 261.36 262.22 262.93 263.62 264.33 264.94 265.76 266.32 266.33 266.37 267.03 267.79 268.16 268.28 268.59 268.99 269.2
260.45 260.1 260.45 261.37 262.41 263.53 264.45 265.32 266.39 267.24 267.57 267.74 267.63 267.37 267.15 266.8 266.34 265.95 265.56 265.05 264.5 264.06 263.76 263.35 262.9 262.67 262.64 262.52 262.33 262.27 262.15 261.98 261.83 261.65 261.49 261.29 261.19 261.11 260.93 260.85 260.82 260.67 260.55 260.43 260.38 260.31 260.23 260.19 260.16 259.88 259.64 259.52 259.31 259.39 259.61 260.12 260.93 261.57 262.14 262.71 263.31 263.73 264.49 265.38 265.75 265.55 265.67 266.37 266.8 267.12 267.5 267.98 268.14 268.44
258.95 259.3 260.48 261.68 262.7 263.81 264.94 265.83 266.68 267.37 267.73 267.88 267.82 267.6 267.37 267.04 266.58 266.07 265.58 264.98 264.54 264.12 263.69 263.34 263.01 262.74 262.64 262.7 262.58 262.45 262.27 262.06 261.94 261.91 261.81 261.56 261.36 261.26 261.2 261.14 260.91 260.77 260.7 260.75 260.78 260.57 260.39 260.3 260.28 260.27 260.08 259.84 259.61 259.47 259.39 259.87 260.73 261.44 261.92 262.31 262.79 263.46 264.33 264.88 265.07 264.92 265.18 265.72 265.88 266.17 266.58 267.11 267.25 267.61
258.4 259.35 260.79 261.98 262.95 263.92 264.79 265.31 265.83 266.6 267.07 267.42 267.74 267.7 267.5 267.3 266.83 266.33 265.95 265.19 264.75 264.41 263.91 263.47 263.11 262.77 262.71 262.76 262.68 262.52 262.35 262.2 262.03 262.01 261.92 261.7 261.52 261.42 261.36 261.4 261.19 260.94 260.85 260.85 260.98 260.89 260.61 260.47 260.39 260.45 260.43 260.35 260.13 259.91 259.61 259.54 260.3 261.05 261.41 261.99 262.68 263.36 263.95 264.4 264.44 264.28 264.62 264.96 265.04 265.37 265.99 266.35 266.43 266.93
258.49 259.65 261.1 261.96 262.62 263.25 263.72 263.89 264.47 265.28 265.79 266.35 267.23 267.62 267.64 267.46 266.98 266.51 266.15 265.62 264.98 264.45 264.16 263.85 263.39 262.9 262.71 262.67 262.65 262.6 262.43 262.34 262.19 262.11 262.01 261.9 261.8 261.76 261.59 261.56 261.5 261.32 261.19 261.12 260.93 261.01 260.94 260.78 260.63 260.75 260.66 260.56 260.58 260.54 260.11 259.61 259.74 260.42 261.17 261.92 262.42 262.95 263.48 263.85 263.8 263.61 263.99 264.25 264.51 264.94 265.54 265.73 265.97 266.63
258.7 259.8 260.7 261.04 261.5 262.09 262.46 262.72 263.3 264.03 264.62 265.34 266.27 267.09 267.54 267.66 267.3 266.74 266.29 265.91 265.37 264.87 264.4 263.98 263.64 263.32 262.88 262.76 262.75 262.72 262.67 262.56 262.35 262.24 262.11 262.03 261.96 261.94 261.81 261.67 261.58 261.48 261.23 261.36 261.14 261.06 261.08 261.06 260.99 261.01 260.85 260.68 260.66 260.69 260.43 260.02 259.82 260.15 260.91 261.48 262.11 262.63 263.05 263.32 263.2 263.06 263.44 263.75 264.13 264.62 265 265.21 265.66 266.16
258.57 259.04 259.41 259.82 260.35 260.71 261.02 261.62 262.28 262.85 263.43 264.27 265.17 266.02 266.82 267.56 267.53 267.1 266.58 266.11 265.67 265.15 264.68 264.31 263.96 263.61 263.3 263.08 262.94 262.83 262.8 262.69 262.5 262.34 262.23 262.17 262.11 262.13 262.02 261.84 261.77 261.7 261.54 261.27 261.18 261.16 261.06 261.01 261.04 261.04 260.98 260.83 260.76 260.74 260.7 260.48 260.19 259.8 260.18 260.95 261.72 262.25 262.59 262.84 262.64 262.52 262.89 263.26 263.65 263.88 264.16 264.71 265.28 265.77
257.7 257.8 258.18 258.7 259.16 259.34 259.82 260.64 261.23 261.76 262.3 263.16 264.16 265.29 266.44 267.48 267.77 267.45 266.83 266.37 266.01 265.51 265.06 264.63 264.34 263.96 263.66 263.45 263.24 263 262.85 262.77 262.73 262.59 262.38 262.35 262.25 262.22 262.17 262.05 262.03 261.93 261.9 261.56 261.35 261.32 261.23 261.15 261.2 261.08 261.17 261.17 260.92 260.87 260.88 260.76 260.41 260 259.93 260.26 260.7 261.33 261.67 262.03 261.9 261.83 262.22 262.61 263.04 263.59 264.17 264.86 265.45 265.9
256.54 256.72 257.08 257.69 258.01 258.34 258.98 259.65 260.17 260.73 261.27 262.17 263.44 264.75 266.2 267.34 267.78 267.75 267.24 266.7 266.3 265.94 265.52 264.97 264.63 264.44 264.14 263.89 263.72 263.42 263.14 262.89 262.77 262.65 262.51 262.53 262.36 262.19 262.16 262.04 261.99 261.88 261.81 261.68 261.58 261.56 261.47 261.41 261.53 261.28 261.23 261.35 261.13 261.04 261.02 261 260.8 260.48 260.41 260.44 260.16 260.17 260.45 260.94 261.38 261.83 262.17 262.6 263.02 263.59 264.17 264.75 265.25 265.7
255.55 255.66 256.08 256.58 256.9 257.41 258.05 258.58 259.17 259.76 260.55 261.68 263.17 264.44 265.52 266.62 267.61 267.86 267.52 266.96 266.53 266.26 266.01 265.6 265.13 264.78 264.51 264.3 264.03 263.76 263.55 263.13 262.87 262.73 262.67 262.62 262.51 262.34 262.26 262.17 262.08 262 261.89 261.81 261.81 261.82 261.79 261.69 261.77 261.65 261.39 261.43 261.35 261.27 261.32 261.2 261.17 261.06 260.89 260.75 260.45 260.09 260.18 260.73 261.41 262.08 262.48 262.98 263.46 263.86 264.31 264.76 265.12 265.56
254.6 254.8 255.12 255.6 255.94 256.48 256.92 257.41 258.14 258.98 259.95 261.28 262.9 263.93 265.06 266.23 267.3 267.94 267.82 267.38 266.8 266.52 266.34 266.02 265.52 265.11 264.87 264.5 264.23 263.99 263.76 263.52 263.28 263.03 262.88 262.71 262.59 262.52 262.42 262.35 262.3 262.32 262.18 262.08 262.03 262.06 262.08 262.06 261.99 261.91 261.67 261.54 261.55 261.46 261.46 261.31 261.24 261.37 261.33 261.12 260.75 260.2 259.98 260.62 261.21 261.78 262.46 263 263.5 264.01 264.53 264.99 265.41 265.8
254.08 254.24 254.48 254.79 255.07 255.38 256.04 256.96 257.98 258.9 259.85 260.9 262.33 263.36 264.52 265.57 266.87 267.96 268.07 267.65 267.02 266.78 266.73 266.3 265.9 265.67 265.37 264.8 264.55 264.29 264.07 263.96 263.68 263.47 263.16 263.01 262.8 262.78 262.63 262.55 262.56 262.67 262.5 262.34 262.32 262.22 262.2 262.23 262.17 262.05 261.97 261.84 261.77 261.75 261.82 261.72 261.41 261.5 261.5 261.28 261.07 260.54 260 260.22 260.83 261.48 262.15 262.82 263.37 264.02 264.54 264.86 265.28 265.66
253.74 253.97 254.13 254.23 254.46 255.08 256.17 257.33 258.34 259.34 260.24 261.27 262.44 263.57 264.54 265.54 266.85 267.92 268.37 267.95 267.48 267.17 266.93 266.64 266.26 266.07 265.71 265.29 265.08 264.71 264.36 264.1 263.89 263.77 263.44 263.18 262.92 262.96 262.79 262.77 262.91 262.87 262.82 262.77 262.67 262.54 262.44 262.34 262.27 262.22 262.32 262.35 262.12 261.98 262.08 262.06 261.65 261.52 261.5 261.45 261.44 261.2 260.65 260.19 260.48 261 261.67 262.45 263.14 263.7 264.22 264.57 264.8 265.11
253.19 253.41 253.84 253.91 254.17 255.11 256.26 257.36 258.39 259.35 260.38 261.5 262.76 263.91 264.99 266.14 267.18 268.27 268.57 268.26 267.91 267.7 267.23 266.81 266.58 266.28 265.92 265.63 265.29 265 264.58 264.31 264.08 263.81 263.71 263.21 263.04 263.24 263.11 262.94 263.26 263.21 263.12 263.11 262.98 262.9 262.7 262.55 262.51 262.48 262.51 262.51 262.31 262.11 262.06 262.04 261.95 261.85 261.72 261.56 261.58 261.64 261.55 260.89 260.46 260.52 260.8 261.59 262.75 263.39 263.72 264.12 264.48 264.86
253.46 253.37 253.46 253.49 253.75 254.6 255.78 257.02 257.98 258.9 259.93 261.58 262.95 263.87 265.09 266.2 267.3 268.49 268.72 268.43 268.16 267.82 267.6 267.07 266.67 266.4 266.1 265.77 265.52 265.22 264.82 264.58 264.31 264 263.95 263.36 263.21 263.41 263.41 263.23 263.51 263.49 263.39 263.37 263.23 263.16 262.99 262.9 262.85 262.7 262.83 262.77 262.59 262.51 262.31 262.23 262.22 262.08 262 261.83 261.75 261.79 261.82 261.7 261.4 260.85 260.41 260.7 261.78 262.58 263.17 263.74 264.3 264.97
253.64 253.78 253.74 253.55 253.47 254.24 255.34 256.52 257.51 258.44 259.45 261.08 262.31 263.36 264.65 265.8 267.05 268.38 268.83 268.61 268.31 267.97 267.59 267.17 266.73 266.49 266.17 265.98 265.77 265.44 265.15 264.88 264.39 264.14 264.01 263.68 263.8 263.75 263.65 263.58 263.85 263.7 263.58 263.52 263.44 263.45 263.32 263.1 263.06 262.88 262.85 262.86 262.8 262.8 262.54 262.53 262.49 262.32 262.25 262.06 261.95 262.05 262.01 261.86 261.85 261.47 260.76 260.5 261.05 262.28 263.18 263.92 264.46 265.06
253.76 253.93 253.73 253.52 253.59 254.22 255.08 256.12 257.05 258 259.04 260.8 261.95 263.09 264.25 265.43 266.48 267.49 268.22 268.44 268.29 268.12 267.84 267.33 266.86 266.68 266.44 266.27 265.94 265.63 265.45 265.27 264.69 264.38 264.42 264.46 264.43 264.18 264.06 263.99 264.01 263.98 264.07 263.83 263.65 263.61 263.49 263.3 263.23 263.19 263 262.93 262.85 262.91 262.79 262.71 262.62 262.55 262.39 262.27 262.17 262.15 262.12 262.08 262.02 261.87 261.27 260.65 260.82 262.07 263.17 263.78 264.4 265.02
254.1 254.12 253.7 253.54 253.77 254.2 254.86 255.67 256.71 257.58 258.65 260.8 261.66 262.42 263.62 264.76 265.53 266.09 266.86 267.47 267.82 268.06 267.87 267.5 267.18 266.91 266.74 266.5 266.22 265.97 265.76 265.55 265.26 264.76 264.66 264.71 264.63 264.43 264.37 264.29 264.15 264.14 264.28 264.07 263.87 263.76 263.66 263.56 263.45 263.46 263.22 263.14 263.15 263.14 263.03 262.99 262.87 262.71 262.67 262.69 262.45 262.21 262.13 262.15 262.1 262.07 261.69 260.91 261.02 261.76 262.79 263.53 264.14 264.73
254.7 254.46 253.78 253.74 253.97 254.27 254.65 255.35 256.25 257.2 258.05 259.93 260.77 261.72 262.8 263.62 264.06 264.62 265.33 265.92 266.77 267.77 267.8 267.53 267.3 267.07 266.88 266.74 266.56 266.39 266.14 265.92 265.68 265.33 265.12 265.06 264.96 264.78 264.52 264.47 264.43 264.26 264.22 264.17 264.03 263.95 263.85 263.7 263.72 263.74 263.49 263.36 263.36 263.33 263.27 263.34 263.17 262.91 262.86 262.82 262.69 262.72 262.6 262.33 262.25 262.3 261.86 260.97 261.21 261.65 262.48 263.2 263.78 264.3
254.88 254.9 254 253.72 254.05 254.18 254.22 254.76 255.67 256.36 256.84 257.85 259.01 260.71 261.77 262.35 262.7 263.27 263.91 264.7 266.05 267.42 267.85 267.75 267.56 267.34 267.03 267 266.81 266.62 266.42 266.21 266.04 265.9 265.68 265.6 265.32 265.19 264.87 264.62 264.63 264.49 264.4 264.39 264.22 264.16 264.12 263.93 263.83 263.77 263.64 263.58 263.54 263.51 263.46 263.4 263.24 263.16 263.15 262.99 262.9 263.06 262.88 262.61 262.49 262.51 262.2 261.26 261.11 261.34 261.95 262.68 263.27 263.77
255.02 255.22 254.74 253.88 253.74 253.73 253.71 253.78 254.06 254.85 255.72 256.55 257.43 258.43 259.7 260.7 261.45 262.28 262.93 263.98 265.3 266.76 267.73 267.97 267.86 267.6 267.36 267.12 267.02 266.84 266.64 266.48 266.38 266.23 266.11 266.01 265.72 265.38 265.24 265 264.88 264.73 264.65 264.54 264.4 264.32 264.28 264.11 263.96 263.89 263.82 263.79 263.72 263.65 263.62 263.58 263.44 263.31 263.31 263.25 263.21 263.24 263 262.88 262.7 262.55 262.44 261.8 261.32 261.23 261.23 261.56 262.27 262.8
255.23 255.37 255.32 254.66 254.09 253.92 254.05 254.23 254.21 254.44 255.11 255.86 256.7 257.6 258.34 258.93 259.7 261.34 262.27 263.49 264.75 266.21 267.6 267.95 267.98 267.82 267.61 267.4 267.34 267.22 266.97 266.83 266.85 266.72 266.52 266.21 265.95 265.71 265.52 265.34 265.25 265.02 264.95 264.85 264.71 264.55 264.36 264.18 264.12 264.09 263.99 263.96 263.92 263.9 263.78 263.87 263.89 263.62 263.5 263.51 263.52 263.49 263.24 263.16 263.06 262.89 262.74 262.21 261.78 261.59 261.33 261.13 261.51 261.9
255.55 255.69 255.66 255.17 254.4 254.24 254.2 254.35 254.46 254.63 254.84 255.44 256.11 256.73 257.32 257.9 258.31 260.09 261.67 262.6 264.23 265.56 266.62 267.4 267.52 267.53 267.55 267.64 267.71 267.61 267.42 267.32 267.2 266.98 266.8 266.59 266.27 266.13 265.88 265.63 265.54 265.37 265.22 265.04 264.96 264.79 264.57 264.41 264.23 264.19 264.16 264.17 264.16 264.19 263.93 263.91 264.04 263.93 263.79 263.67 263.6 263.56 263.45 263.35 263.25 263.07 263.06 262.59 262.25 262.18 262.01 261.55 261.27 261.62
255.87 255.9 255.85 255.46 254.57 254.4 254.4 254.3 254.23 254.55 254.8 255.18 255.58 256.07 256.52 257.02 257.87 259.02 260.44 261.46 263 264.24 265.31 266 266.27 266.46 266.74 267.11 267.67 267.88 267.76 267.68 267.38 267.13 266.95 266.82 266.69 266.47 266.25 266.08 265.9 265.65 265.45 265.29 265.16 264.93 264.54 264.39 264.36 264.36 264.33 264.33 264.3 264.25 264.14 264.06 264.01 263.93 263.89 263.77 263.73 263.69 263.62 263.48 263.37 263.24 263.25 263.05 262.79 262.83 262.91 262.51 261.66 261.47
256.17 256.28 256.14 255.52 254.72 254.75 254.56 254.28 254.21 254.63 254.83 254.98 255.24 255.57 256.02 256.73 257.62 258.22 259.4 260.83 261.99 263.05 264.02 264.42 264.71 264.99 265.42 266.16 267.16 267.92 268.07 267.97 267.71 267.47 267.35 267.25 267.05 266.83 266.66 266.44 266.28 266.03 265.73 265.53 265.33 265.19 264.92 264.58 264.5 264.58 264.55 264.49 264.43 264.3 264.26 264.24 264.17 264.05 263.94 263.88 263.84 263.82 263.77 263.69 263.6 263.44 263.33 263.25 263.14 263.2 263.3 263.13 262.62 262.01
256.59 256.54 256.33 255.6 254.96 254.87 254.37 254.18 254.42 254.64 254.77 254.93 255.15 255.44 255.81 256.4 257.02 257.93 258.99 260.25 261.34 262.14 262.73 263.01 263.13 263.51 264.1 265.05 265.86 266.95 267.79 268.12 268.12 267.86 267.72 267.75 267.54 267.3 267.03 266.76 266.52 266.27 266.06 265.86 265.55 265.32 265.14 264.77 264.75 264.83 264.8 264.67 264.58 264.45 264.42 264.37 264.26 264.17 264.11 264.04 263.98 263.92 263.83 263.77 263.76 263.66 263.64 263.49 263.38 263.39 263.42 263.37 263.23 262.7
256.86 256.58 255.99 255.42 255.29 255.14 254.44 254.28 254.57 254.63 254.79 255.03 255.26 255.45 255.84 256.29 256.91 257.74 258.71 259.67 260.67 261.38 261.61 261.68 261.99 262.68 263.44 264.2 265.04 265.99 266.94 267.85 268.29 268.12 267.99 267.99 267.99 267.84 267.54 267.15 266.91 266.61 266.29 266.08 265.83 265.49 265.33 265.01 265.03 265 264.91 264.78 264.63 264.51 264.44 264.42 264.34 264.29 264.28 264.18 264.09 264.05 263.98 263.91 263.87 263.78 263.82 263.72 263.58 263.47 263.43 263.4 263.39 263.16
256.95 256.52 256.04 255.85 256.04 255.76 254.73 254.25 254.57 254.88 254.88 255.1 255.2 255.35 255.76 256.11 256.67 257.4 258.16 258.98 259.85 260.38 260.66 261.21 262.29 263.26 264.21 265.1 265.94 266.63 267.36 267.8 268.39 268.37 268.37 268.31 268.31 268.21 268.08 267.72 267.37 266.86 266.65 266.35 265.96 265.67 265.52 265.32 265.29 265.22 265.1 264.9 264.74 264.73 264.64 264.43 264.44 264.44 264.4 264.35 264.3 264.2 264.1 264.07 264.1 263.94 263.77 263.68 263.67 263.62 263.53 263.46 263.42 263.43
256.93 256.56 256.45 256.46 256.46 256.3 255.47 254.61 254.38 254.52 254.73 255.09 255.25 255.41 255.77 256.19 256.64 257.09 257.55 257.98 258.47 259.55 260.44 261.64 262.69 263.77 264.9 266.03 266.98 267.88 268.52 268.51 268.53 268.63 268.61 268.61 268.58 268.52 268.44 268.17 267.89 267.3 266.87 266.57 266.19 265.89 265.68 265.6 265.58 265.45 265.27 265.01 264.86 264.85 264.81 264.63 264.62 264.52 264.46 264.46 264.44 264.35 264.22 264.15 264.2 264.07 263.91 263.81 263.87 263.88 263.69 263.66 263.53 263.46
256.91 256.94 257.07 256.9 256.66 256.58 255.96 255.08 254.73 254.63 254.51 254.74 255.29 255.65 255.88 256.3 256.61 256.66 256.91 257.4 258.22 259.47 260.75 261.76 262.92 264.09 265.22 266.49 267.79 269.05 269.38 269.27 269.13 269 268.82 268.89 268.9 268.83 268.76 268.55 268.22 267.74 267.21 266.77 266.33 266.13 266.01 265.95 265.84 265.73 265.51 265.22 265.03 264.94 264.84 264.78 264.73 264.67 264.58 264.57 264.65 264.57 264.37 264.26 264.2 264.13 264.08 263.99 264.04 263.99 263.77 263.73 263.63 263.55
257.23 257.44 257.43 257.27 256.98 256.74 255.95 255.21 254.91 254.86 254.71 254.5 254.66 255.51 256.07 256.32 256.3 256.18 256.72 257.45 258.48 259.64 260.67 261.74 262.83 263.84 265.05 266.29 267.59 268.8 269.67 269.64 269.56 269.46 269.3 269.25 269.24 269.18 269.08 268.78 268.46 268.04 267.59 267.07 266.72 266.49 266.3 266.17 266.03 265.91 265.75 265.61 265.5 265.24 265.02 264.96 264.82 264.88 264.88 264.73 264.67 264.59 264.47 264.39 264.36 264.25 264.16 264.18 264.14 263.95 263.94 263.86 263.72 263.68
257.55 257.83 257.67 257.48 257.19 256.76 255.89 255.23 255.04 254.94 254.83 254.73 254.59 254.92 255.56 255.97 255.9 255.9 256.49 257.28 258.2 259.28 260.25 261.17 262.14 262.98 264.23 265.83 267.03 268.18 269.29 269.92 269.98 269.89 269.79 269.71 269.68 269.46 269.33 269.1 268.61 268.16 267.74 267.36 267.02 266.87 266.66 266.42 266.31 266.29 265.99 265.88 265.9 265.69 265.34 265.26 265.08 264.92 264.95 264.89 264.82 264.73 264.68 264.65 264.71 264.52 264.26 264.2 264.14 264.06 264.18 264.07 263.9 263.84
257.75 257.94 257.83 257.66 257.47 257.14 256.17 255.45 255.19 255 254.86 254.81 254.84 254.88 254.96 255.21 255.35 255.72 256.42 257.1 257.81 258.72 259.6 260.42 261.34 262.48 263.75 265.06 266.42 267.6 268.72 269.95 270.32 270.27 270.25 270.17 270.1 269.92 269.64 269.33 268.84 268.67 268.19 267.89 267.54 267.24 266.98 266.62 266.57 266.54 266.17 266.03 265.99 265.89 265.63 265.36 265.32 265.22 265.18 265.08 265 264.91 264.86 264.82 264.72 264.55 264.42 264.31 264.26 264.2 264.17 264.07 264.01 263.94
258.11 258.11 257.99 257.78 257.63 257.41 256.29 255.91 255.78 255.69 255.28 255.01 254.97 254.96 254.82 254.96 255.14 255.46 256.17 256.78 257.31 257.98 258.87 259.95 261.14 262.2 263.3 264.39 265.6 267 268.37 269.62 270.53 270.65 270.62 270.61 270.51 270.31 270.03 269.57 269.24 268.98 268.57 268.18 267.87 267.58 267.37 266.86 266.66 266.55 266.34 266.22 266.11 265.97 265.81 265.61 265.64 265.51 265.39 265.29 265.16 265.06 264.94 264.82 264.72 264.67 264.57 264.45 264.45 264.35 264.24 264.15 264.14 264.17
258.32 258.24 258.11 257.92 257.82 257.54 256.63 256.61 256.64 256.67 256.11 255.45 255.21 255.24 254.77 254.78 255.16 255.2 255.63 256.22 256.69 257.54 258.57 259.71 260.65 261.53 262.7 263.94 265.16 266.55 267.74 268.97 270.22 270.96 271.06 270.93 270.85 270.58 270.25 269.87 269.56 269.18 268.77 268.41 268.21 268.02 267.84 267.48 267.03 266.67 266.57 266.4 266.29 266.23 266.1 265.88 265.8 265.69 265.56 265.47 265.33 265.2 265.16 265.06 264.95 264.82 264.75 264.66 264.61 264.47 264.36 264.3 264.24 264.29
258.58 258.39 258.26 258.11 257.88 257.77 257.49 257.56 257.48 256.88 256.27 255.87 255.84 255.94 255.32 254.93 254.98 254.96 254.94 255.57 256.37 257.01 257.91 259.02 260.01 261.12 262.36 263.6 264.77 266.01 267.19 268.11 269.42 270.44 271.27 271.34 271.08 270.83 270.46 270.12 269.96 269.49 269.12 268.77 268.47 268.27 268.05 267.86 267.53 267.14 266.9 266.6 266.43 266.34 266.26 266.14 266.09 266.03 265.81 265.7 265.6 265.55 265.41 265.23 265.17 265.02 264.88 264.79 264.85 264.78 264.6 264.48 264.4 264.45
258.73 258.45 258.3 258.17 257.97 257.86 257.76 257.82 257.77 257.37 257.01 256.89 256.84 256.62 255.84 255.4 255.15 255.07 254.93 254.9 255.44 256.42 257.61 258.74 259.86 261.02 262.07 263.12 264.29 265.44 266.32 267.29 268.69 269.8 270.9 271.54 271.36 271.09 270.84 270.42 270.07 269.79 269.51 269.1 268.73 268.52 268.25 268 267.84 267.52 267.2 266.94 266.67 266.56 266.43 266.34 266.3 266.32 266.04 265.9 265.79 265.74 265.6 265.41 265.31 265.17 265.08 265 264.94 264.86 264.7 264.63 264.63 264.56
258.92 258.58 258.38 258.19 258 257.91 257.86 257.78 257.72 257.73 257.63 257.51 257.46 257 256.26 255.59 255.64 255.37 255.26 255.08 255.01 255.74 256.99 258.11 259.23 260.32 261.35 262.43 263.47 264.34 265.37 266.6 267.95 269.08 270.33 271.4 271.63 271.22 270.89 270.69 270.36 269.89 269.83 269.52 269.13 268.87 268.55 268.37 268.52 268.13 267.63 267.41 267.11 266.87 266.6 266.48 266.45 266.46 266.34 266.12 265.98 265.91 265.77 265.6 265.5 265.33 265.25 265.15 265.09 265.01 264.87 264.8 264.84 264.78
259.17 258.82 258.55 258.32 258.1 257.95 257.86 257.81 257.76 257.73 257.67 257.42 257.3 256.78 256.05 255.63 255.96 255.79 255.36 255.36 255.35 255.23 255.79 257.01 258.34 259.52 260.48 261.45 262.38 263.27 264.51 265.97 267.35 268.7 270.02 271.36 271.79 271.43 271.17 270.77 270.46 270.03 269.77 269.74 269.59 269.19 269.05 268.89 268.66 268.42 268.23 268.07 267.7 267.34 266.96 266.61 266.6 266.61 266.46 266.29 266.18 266.07 265.97 265.81 265.7 265.56 265.46 265.3 265.29 265.24 265.09 265.06 264.86 264.77
259.44 259.12 258.87 258.57 258.38 258.14 257.93 257.86 257.84 257.8 257.53 256.89 256.4 256.14 255.88 255.97 256.4 256.38 255.78 255.47 255.61 255.54 255.21 255.86 257.26 258.53 259.54 260.48 261.56 262.85 264.14 265.7 267.2 268.54 269.8 271.01 271.84 271.59 271.28 271.03 270.75 270.38 270.15 270.14 270.09 269.88 269.7 269.51 269.08 269.04 268.95 268.75 268.43 268.02 267.48 267.04 266.75 266.65 266.55 266.46 266.4 266.33 266.3 266.11 265.92 265.79 265.66 265.56 265.62 265.56 265.26 265.19 265.09 264.88
259.88 259.53 259.3 258.94 258.64 258.24 258.07 258 257.92 257.87 257.44 256.54 256.1 255.91 255.86 256.3 256.91 256.81 256.27 255.63 255.52 255.52 255.42 255.54 256.47 257.51 258.96 260.17 261.41 262.67 263.93 265.49 266.85 268.12 269.24 270.53 271.75 271.8 271.44 271.21 270.94 270.63 270.51 270.43 270.51 270.65 270.26 270.17 269.8 269.73 269.55 269.32 268.94 268.62 268.15 267.53 267.14 267.07 266.84 266.65 266.58 266.49 266.42 266.22 266.08 265.99 265.85 265.73 265.68 265.58 265.45 265.35 265.36 265.24
